1925
-1299.37 1836.14 -622.226
-1015.85 2545.06 -1241.34
-651.77 1918.28 -1241.34
-1140.38 2327.4 21.9137
-2036.03 2410.27 762.566
-1335.94 2360.74 1037
-472.932 2545.58 -80.5838
-139.098 1948.44 -457.716
-935.526 1826.63 465.076
-769.159 2125.48 1596.25
-655.739 1633.38 1100.53
-1151.11 680.993 -228.626
-1856.58 1460.09 1596.25
-2171.47 1726.73 1163.55
-1785.39 590 1596.25
-2192.79 796.82 1596.25
-1446.94 1037.73 1153.5
-2680.13 2810.42 1596.25
-3773.69 2129.16 1596.25
7285.13 -676.516 -1241.34
7998.59 -480.089 -914.946
8938.75 -498.806 -1241.34
8413.07 -604.58 -922.292
8925.67 -479.23 -474.243
8862.58 1300.76 -471.198
9213.36 1033.15 -926.561
9213.36 916.131 313.448
9213.36 614.226 -166.86
8692.22 641.691 -702.38
8857.57 313.63 -231.791
9213.36 253.67 -553.583
8813.96 -89.7892 -850.185
8134.21 145.264 -333.071
8600.92 -43.651 -117.628
8342.96 -336.14 -65.3606
8361.63 -50.9749 421.78
7775.41 48.6538 171.451
6972.07 805.757 -1241.34
7412.02 624.666 -1241.34
8072.69 945.236 -1241.34
7441.44 580.236 -433.726
7905.78 182.65 -941.753
7786.17 1581.92 -170.043
7979.83 758.337 -453.412
8367.96 716.837 -260.132
8320.28 763.425 418.718
-151.368 1896.59 1141.25
389.501 1915.74 1596.25
949.297 2012.55 1104.54
356.23 2365.9 932.505
37.5752 2801.13 1288.91
730.125 2540.3 1596.25
-759.812 2332.32 -888.207
500.046 2520.49 -1241.34
197.94 2424.68 -289.497
288.18 2963.01 -809.685
421.283 1008.74 1140.88
49.1867 1254.97 1596.25
391.976 1496.44 1596.25
-340.622 1605.18 171.498
-261.811 2214.87 179.691
150.16 1583.04 648.208
1801.9 2267.56 465.729
1384.93 2592.31 1051.94
1049 2922.95 179.109
884.644 2308.85 586.418
960.955 2396.87 63.5026
-6285.03 4999.82 195.839
-6556.29 4372.18 771.48
-6318.34 4248.52 442.052
-7746.4 3537.54 -230.591
-7566.15 3521.03 915.647
-6458.99 4656.86 -44.1126
-7163.51 4631.97 -88.136
-6634.18 4732.9 406.065
-6004.53 3314.8 1194.7
-6687.98 4198.12 1260.99
-6333.55 3952.65 1326.27
-7077.97 4284.35 613.153
-6791.24 3821.45 790.006
-7221.05 3911.81 788.219
-5265.51 3730.79 744.474
-4811.7 3084.18 495.736
-5230.52 3071.36 192.063
-5449.12 4999.82 1241.49
-4943.93 4676.58 859.806
-5496.53 4541.2 1287.13
-5199.06 4396.75 716.813
-6111.99 4241.44 1233.02
-6063.91 4671.88 1596.25
-5671.81 4717.9 910.416
-3165.39 -1099.9 -557.319
-3624.58 -1037.23 -853.315
-3398.8 -463.131 -1241.34
-2895.61 -830.131 -980.005
-2033.43 -2267.17 687.587
-2466.88 -1219.08 409.673
-2095.01 -1747.85 900.215
-2954.7 -1879.51 355.298
-3691.53 -1082.8 1122.22
-4061.4 -961.492 750.213
-2782.05 -1542.51 -47.5627
-2451.3 -1691.8 -302.073
-3560.17 -1552.94 4.11634
-2589.01 -1152.46 -1241.34
-2839.06 -1557.71 -967.852
-447.368 -382.005 1212.56
-2495.01 117.429 1596.25
-2428.15 532.617 -226.044
-2495.72 475.636 1032.46
-2128.5 -296.674 1272.48
-1781.81 171.121 1596.25
-1038.26 557.991 1596.25
-1472.51 323.752 1163.6
-1006.58 127.001 1596.25
-1267.43 679.429 590.336
-753.546 142.962 1283.33
-2254.91 568.394 -1241.34
-1861.04 317.325 -383.505
-1926.29 -119.148 -1241.34
-1428.08 -351.657 -165.07
-1516.77 143.642 -1241.34
-1620.87 -793.493 661.782
-2111.16 365.714 686.92
-1655.79 -231.064 753.807
-1018.92 -529.344 318.723
-1008.59 92.8046 819.913
-871.464 -309.492 690.871
-2654.31 -534.951 -544.876
-2756.72 -1022.39 18.7208
-2524.76 -118.049 496.497
-982.594 -1083.78 941.955
-1154.47 -620.574 1301.75
-1407.62 -303.317 1293.13
-543.656 -1948.4 1272.57
-893.669 -2267.17 506.001
-1884.99 -264.009 325.531
-2658.83 -1040.4 796.776
-3285.94 -490.366 391.687
-2970.65 -766.741 1179.6
-1200.47 -1496.2 684.899
-1396.56 -1905.21 896.578
-1911.06 -1417.57 779.969
-2004.47 -818.472 578.712
-1906.27 -1108.54 1293.21
-1490.19 -1159.69 1285.81
-1293.25 -1953.78 1277.54
-3157.17 1911.92 -941.208
-2789.39 1678.78 -902.671
-3369.98 1418.7 -489.372
-1960 2017.71 -946.194
-2380.81 1163.51 -864.348
-3251.45 2062.45 460.349
-2713.37 1805.71 143.362
-2923.16 1490.94 -138.993
-2517.64 2162.32 -1241.34
-2316.14 1733.15 -912.5
-2671.87 2419.75 -807.549
-2538.12 1598.12 -509.593
-2877.58 2095.13 -361.915
-1695.54 1937.65 -499.4
-2243.96 2310.78 -479.564
-1913.29 1327.35 -103.337
-1758.18 2041.96 117.851
5211.61 4103.41 1237.19
4796.54 4075.69 1596.25
4595.56 3752.53 1266.25
4510.97 4207.24 889.725
4896.34 3797.56 752.838
3869.84 2884.35 1206.7
4150.53 3449.81 673.456
3665.95 3474.16 1596.25
4010.32 3489.68 1213.41
4440.7 4112.41 1286.38
4005.55 4140.79 1596.25
4075.29 4999.82 901.117
4815.73 2728.27 -1241.34
4453.47 2729.51 -829.574
4934.58 3450.43 -826.687
3678.7 3270.14 462.031
3753.66 3153.26 -928.976
3744.33 3613.78 -928.976
3637.95 2916.03 -535.315
4421.21 1822.36 76.7055
4474.87 2043.29 -1241.34
3880.34 4297.34 -937.152
4307.37 4999.82 -886.619
3878.86 4677.29 -617.183
3182.6 4114.09 -749.201
4674.01 4682.17 -631.276
4443.12 3763.07 -388.233
3991.37 3370.18 -241.121
4710.28 4167.03 518.394
4202.62 3684.04 227.928
4668.1 3711.12 340.244
5429.85 3703.28 -372.037
5276.31 3049.08 -594.689
5081.68 3151.48 288.82
6106.75 4341.55 -1241.34
5879.14 4667.98 -1241.34
6013.33 3985.83 -380.74
5963.48 4666.48 205.032
5758.63 4709.23 -276.495
5702.37 4508.71 -900.646
5231.36 4677.5 -921.626
4199.25 3246.17 -865.922
4606.22 3510.64 -956.915
4635.23 4129.2 -940.123
-1134.58 616.384 -752.236
-810.473 808.36 -942.854
595.829 184.763 -7.45686
587.398 -316.187 475.959
-442.759 -527.678 -1241.34
-656.948 -840.955 -898.098
-459.557 29.2344 -791.3
-361.619 679.801 -544.622
-54.9636 987.055 -777.562
-31.4959 922.875 -100.335
-39.58 753.711 930.086
-790.901 649.086 1258.48
-1111.96 1883.16 1596.25
2372.76 -565.781 1596.25
2586.66 -1052.9 1299.56
1993.51 -1396.79 1256.69
2375.47 -1493.76 1125.81
2722.71 117.597 865.899
2416.94 -190.909 -167.985
2280.6 -1142.17 -307.889
2021.53 -359.189 589.135
1801.57 20.922 -252.922
1970.4 -1224.37 764.043
1416.7 -429.409 1187.89
1532.43 -868.339 850.398
1910.87 -275.412 1104.72
3167.97 -1554.88 -185.144
3199.08 -988.154 20.052
3850.43 -1508.68 344.919
3591.14 -2267.17 404.103
3253.01 -1815.12 236.218
3392.83 -1947.01 839.658
1507.16 -803.873 -54.085
1563.71 -1030.43 -455.791
1447.35 -1228.31 244.09
1429.67 -1524.43 -273.682
2016.08 -1919.95 712.836
1990.42 -2267.17 177.426
2515.33 -1545.07 -306.309
2156.99 -1500.03 454.529
2267.76 -1962.9 65.0674
-8116.17 -996.484 -1241.34
-8022.42 -674.065 -945.57
-8475.06 -1144.08 -380.237
-8781.11 -1448.58 -981.876
-8461.32 -1159.3 -1241.34
-8558.43 -280.191 -1241.34
-8781.11 -955.097 -924.991
-8405.33 -842.517 -154.951
-8235.65 -1471.31 148.946
-8101.13 -2267.17 154.421
-8781.11 -1959.66 501.344
7365.45 -507.598 1276.92
6874.1 -893.648 909.549
6786.32 -461.8 1596.25
6618.7 -281.396 1046.87
6196.64 -215.39 1312.78
5754.37 -1969.67 189.276
5469.08 -2267.17 660.439
5469.55 -2009.37 -49.775
6494.99 -2267.17 634.281
6723.59 -2267.17 133.009
5749.05 -1913.36 783.706
5408.89 -77.587 215.817
5811.04 20.6214 1035.43
6134.69 -1513.47 1185.01
5730.46 -1950.48 1596.25
5517.86 -1182.42 1596.25
5923.02 -1888.59 1244.52
-2018.52 3332.71 799.87
-2673.27 2438.03 227.11
-3061.15 2993.31 97.8634
-2362.31 3095.82 357.767
-2696.61 3142.6 -528.941
-2191.53 3824.31 5.68924
-2629.62 4407.96 -235.506
-2708.23 3709.62 332.041
-1227.2 3682.02 -893.358
-2311.96 4553.77 -930.925
-2217.01 3888.13 -1241.34
-2368.43 4006.5 -440.13
-1809.5 3728.58 -292.799
-2329.76 3167.33 -932.837
-2310.33 3605.01 -946.66
-1319.24 4348.14 -617.711
-1050.76 4697.66 -337.706
-553.081 3584.51 -112.526
-1310.19 4043.2 -49.858
-1122.78 4999.82 -1014.41
-341.406 4181.69 -936.716
-1240.02 3969.51 -520.657
-629.426 4453.15 -463.033
-2687.45 4999.82 -525.416
-3009.04 3990.52 -588.083
-1353.89 3575.72 1225.56
-875.338 3752.53 654.251
-1063.41 3997.17 993.596
-1018.72 4999.82 645.565
-1606.77 4277.77 727.279
-1383.86 4999.82 886.834
-1316.47 4666.53 343.822
-471.308 4567.61 1160.12
-521.713 3946.59 1072.64
-1571.26 2903.73 936.159
-1565.64 2520.17 258.585
-945.36 3004.49 450.094
-1318.91 2994.17 1257.95
-772.737 2545.46 1596.25
-623.275 2565.35 933.935
-575.975 2968.68 1187.49
-940.102 3211.27 1249.81
-2298.24 4999.82 645.592
-1587.3 3632.22 628.476
-1113.09 4496.56 -21.3695
-1753.59 4641.03 -304.542
-2322.11 4670.98 1596.25
-2375.62 4999.82 1241.53
-1796.01 4666.14 1292.35
-2153.97 4999.82 857.263
-7002.44 -530.384 1286.6
-6842.43 -972.863 1290.57
-7230.79 -188.154 1596.25
-7690.29 -411.584 1596.25
-7282.25 232.489 1028.05
-7027.95 -89.1729 1277.23
-6369.4 -148.533 226.906
-7214.32 -537.941 -27.3908
-6501.5 -1203.72 112.119
-6824.54 209.836 561.955
-6575.37 -111.264 633.132
-7140.82 -532.849 685.769
-6674.44 -1431.31 1254.13
-6143.08 -1235.52 1596.25
-6423.15 -1897.44 1217.79
-5707.08 -2267.17 -75.336
-5520.03 -1988.11 175.861
-6115.42 -1433.54 -208.087
-6026.61 -1905.32 -55.9891
-5975.03 -1965.98 -440.506
-6531.57 -1663.55 -104.237
-6664.24 -1922.39 -358.403
-3512.23 136.955 1280.31
-3161.4 -68.9304 1275.88
-3833.8 -482.528 1030.39
-2148.36 -648.825 985.09
-3183.49 803.301 1287.46
-3155.29 386.099 1285.18
-3610.19 540.239 525.097
-2938.25 283.343 152.52
-2788.17 545.032 -925.362
-3163.6 -91.8007 -808.971
-2508.57 168.845 -948.52
-1848.52 841.081 -1241.34
-2348.32 1073.75 -349.223
-5481.01 -2267.17 -839.212
-5462.01 -1866.99 -1241.34
-4405.06 -1958.34 -49.7572
-4076.16 -1702.23 -637.603
-6000.06 -1368.53 -907.917
-5484.74 -1389.52 -340.714
-4636.14 -1939.61 -916.97
-5894.39 -1263.79 1109.04
-6215.16 -1482.78 465.206
-5676.42 -1116.89 263.16
-4387.62 -823.311 113.347
-4609.87 -1497.11 -516.372
-5056.03 -1303.68 -17.0536
-4987.12 -1473.17 472.734
-4880.08 -1971.52 -112.211
-4582.71 -1544.14 45.3325
-4732.09 -159.249 528.115
-4689.91 -1180.15 701.753
-5224.62 -1044.74 -441.855
-4919.47 -850.567 235.777
-5372.72 -727.837 217.904
-5137.15 -634.025 552.934
-5053.54 -1689.33 -231.522
-5892.54 -1956.34 895.449
-5910.27 -1640.72 1268.85
-5262.11 -1922.81 1071.24
-4945.12 -973.618 985.672
-5035.71 -1211.72 1276.01
-5474.67 -1134.03 688.838
-4661.81 -2267.17 380.385
-5151.64 -1940 377.574
-4725.76 -1949.55 1596.25
-4644.52 -1637.15 825.199
-4720.99 -1938.52 1059.94
-4019.67 -2267.17 -290.578
-4157.57 -1601.97 490.067
-4055.74 -981.888 -877.652
-4756.1 -796.564 -973.963
-4782.76 -1024.89 -566.673
-4342.33 -1663.12 -927.03
3440 2920.89 965.433
3483.91 2162.24 1014.8
3684.71 2741.87 519.32
4430.76 2980.16 494.661
4530.58 2435.45 347.188
5024.5 2350.44 1175.26
4536.53 2698.2 840.823
4331.2 2156.22 1155.84
4929.77 1357.99 754.413
4916.98 2062.01 664.504
3999.13 2769.24 58.034
4725.28 3112 -370.953
3919.94 2453.11 -929.775
2858.5 2349.5 1143.29
2229.39 2158.26 1596.25
2284.63 2090.4 755.958
2197.66 2589.7 1596.25
-7621.25 -804.157 -1241.34
-7390.81 -504.824 -899.898
-3234.59 -1944 1596.25
-3298.06 -1508.29 1273.68
-3729.75 -1917.63 550.584
-3344.61 -1911.82 773.83
-2594.3 -1985.11 328.336
-3393.37 -1362.61 378.829
-3071.15 -1165.7 788.491
-3154.2 -1709.47 991.033
-2490.07 -719.142 1596.25
-2322.01 -1376.6 1596.25
-1326.2 -710.107 -916.029
-490.684 -892.475 745.398
-107.062 -1174.14 -1241.34
-1493.15 -1069.22 -402.705
-2133.26 -940.885 -506.034
-1658.51 -1610.2 -364.309
-1723.81 -1226.34 -868.071
-1108.84 -1146.21 -80.572
-969.5 -1602.69 -350.075
-997.091 -1386.21 -1241.34
-824.845 -1942.62 -1241.34
-1132.61 -1610.35 -1241.34
-454.892 -1443.06 505.319
-886.315 -984.922 423.777
-286.896 -1299.6 131.902
-1758.16 -1937.7 -544.145
-2091.38 -1536.8 -740.276
-2183.68 -907.691 -970.787
-1814.48 -372.918 -883.32
-2280.6 -311.838 27.1585
-2242.48 91.6959 -251.998
433.093 2594.63 1272.22
546.691 2942.68 718.682
562.71 3221.89 1328.11
-89.4108 3470.43 1596.25
37.6233 3246.41 1294.67
1323.34 3141.97 1090.78
1635.95 3522.46 1204.46
1265.53 3596.07 1303.42
1452.85 4126.74 617.225
708.468 4373.5 568.699
768.255 3839.36 43.8297
418.714 3364.99 85.0835
389.603 3747.45 833.758
757.097 4128.16 1337.33
2052.38 2822.89 1132.46
2281.18 3671.92 1148.08
1814.21 4999.82 884.263
1889.87 4514.62 446.667
2208.16 4122.56 1261.28
1540.81 4185.79 1310.29
1923.99 4681 1173.58
1136.93 4057.89 1014.37
1133.84 4696.11 1275.5
1520.59 4619.34 962.094
680.673 4707.29 719.738
14.7072 4531.19 1596.25
475.544 4999.82 1309.95
130.558 3842.02 1295.53
229.645 4205.93 209.664
-30.4624 4640.98 702.432
-559.163 4393.8 522.377
-133.548 3715.67 567.571
-308.02 4134.63 98.5135
308.281 4999.82 874.956
465.802 4712.79 1022.37
-5788.54 -1614.73 634.421
-6768 -1965.85 270.052
-7018.37 -1778.9 1276.32
-6908.67 -1036.74 618.422
-7517.52 -1180.76 724.519
-7896.36 -1387.86 978.949
-7245.43 -1031.8 994.996
-7555.69 -1552.49 1255.19
-7916.37 -1056.81 1278.6
-4190.23 -2267.17 896.743
-4109.74 -1544.55 1049.26
3796.2 -817.088 -923.601
3391.95 -534.189 -872.787
3649.71 -1440.66 -557.689
3467.58 -1144.36 -646.199
3887.41 -1583.74 -888.511
3556.41 -1230.68 -1241.34
4186.74 -1979.64 97.7219
4346.16 -1530.19 -441.261
4507.52 -1989.71 -346.376
4076.14 -2267.17 -545.927
4363.85 -1376.51 590.582
4191.72 -1585.52 928.304
3927.92 -1950.54 404.353
3858.72 -1764.65 779.975
4103.37 -2022.86 920.55
5359.87 -948.963 -397.818
4997.35 -791.415 -1241.34
4936.52 -1066.51 -530.339
4474.52 -1632.46 -944.117
3875.72 -986.474 -327.029
4616.98 -649.022 -515.915
4417.84 -335.188 167.472
5288.03 -1981.44 -938.576
3747.15 4221.64 1267.13
3870.61 4610.26 780.066
2361.87 3138.01 1227.33
2932.22 2911.33 147.447
2541.49 2914.55 813.213
3012.34 3280.25 558.642
3369.18 3450.1 991.634
3013.44 2793.34 1203.88
2906.83 4001.92 904.843
3109.15 3564.22 1328.57
3662.53 4193.87 34.2126
4109.29 4198.06 80.2909
4075.62 4999.82 418.559
3700.52 4662.28 191.838
2917.68 4687.96 659.957
2950.54 4999.82 191.792
3071.02 4677.55 -91.5715
3941.03 3894.19 782.93
3567.42 4674.87 963.595
8497.43 -1286.84 -164.553
9213.36 -1631.59 348.211
7244.7 -1922.4 651.967
8123.5 -1927.89 739.923
7984.77 -1205.85 414.391
7808.25 -1573.37 289.234
9213.36 -952.918 369.538
9213.36 -778.438 770.204
8387.6 -794.959 398.744
9213.36 -718.942 9.77883
8886.16 -1158.13 -251.897
8709.7 -800.46 -63.1524
7457.1 107.328 -547.136
7718.71 -446.869 568.71
8667.64 -899.923 -935.493
8375.1 -2267.17 -524.579
8918.59 -2267.17 -975.212
8550.94 -1903.44 -413.574
8359.73 -1818.34 -1241.34
8893.28 -1539.27 -950.286
8252.14 -848.325 1074.67
8550.68 -1374.85 962.323
8129.42 -1253.14 1596.25
8139.75 -1513.03 899.337
8562.35 -1502.78 1596.25
8248.88 -1532.36 1596.25
8865.67 -1204.26 1250.1
109.998 -1307.54 313.49
563.725 -1398.48 850.464
67.3303 -704.654 601.373
751.946 -1407.71 -17.2704
1173.55 -1075.8 602.525
-438.632 -641.163 -278.76
100.968 -602.963 -481.258
502.476 -1941.64 1596.25
900.915 -1194.02 1078.9
-968.141 -936.61 1304.57
-280.44 -1414.64 1249.5
-611.864 -1591.48 1092.49
696.094 -1451.82 -918.499
158.796 -1930.28 -902.106
-22.2761 -1938.22 -328.551
-372.947 -2267.17 -1014.44
-346.089 -2061.48 -1241.34
-165.739 -1975.09 -711.447
-657.192 -1484.52 -705.485
-282.533 -1620.45 -443.903
8.27296 -1420.89 677.637
-705.793 -1194.54 1596.25
-81.5439 -1956.68 1284.46
261.516 -1450.72 1218.35
371.401 -1965.05 869.176
-373.246 -1955.3 -147.016
-653.018 -1571.34 -27.9153
-848.681 -1695.48 300.567
-1987.19 4700.31 -940.349
3678.9 -1564.84 -143.792
3860.1 -1939.71 -283.019
2161.05 -1953.82 -1241.34
2874.59 -1928.75 -305.052
2676.21 -801.555 -30.7849
2690.22 -440.042 -434.161
3495.64 -1479.73 -916.835
2771.34 -1553.49 -898.516
3277.85 -1231.19 -994.019
2316.73 -1115.24 -895.681
2868.87 -970.656 -513.852
1026.41 2519.96 -968.141
1392.45 2283.02 -1241.34
1357.13 1837.91 -930.726
1677.51 2978.46 -779.5
702.762 2842.12 -898.084
848.429 2306.62 -476.303
1307.66 1577.79 -368.263
2009.49 1525.98 -546.084
821.541 1465 -1241.34
408.63 1639.53 129.835
1221.09 1001.41 -48.3696
1111.86 1671.8 178.195
430.996 1237.42 -1241.34
490.919 1524.27 -457.716
630.236 782.68 -936.919
1588.76 1032.28 -605.783
1078.61 305.277 -553.482
1533.63 2214.57 -362.839
2111.7 2710.69 -815.285
1915.36 2265.06 -1241.34
2224.38 2119.35 -819.385
2889.06 1976.54 -404.646
3250.82 2626.97 -579.148
2862.23 2438.88 -1241.34
1784.99 1234.57 1145.32
1975.76 2055.45 1239.73
2537.93 2118.82 1288.94
2805.61 1223.68 1294.65
2757.99 1678.99 1288.94
1728.39 1724.8 -236.575
2441.45 604.818 44.2184
2224.8 837.132 819.834
1955.84 335.562 140.931
2030.91 1819.24 150.086
1737.14 1002.03 333.102
2428.86 1429.11 182.904
2306.2 1560.11 880.928
-3586.99 3429.3 559.345
-3855.95 3926.25 417.233
-3189.53 4159.14 797.408
-3573.14 4287.7 656.194
-3607.75 3964.18 1117.83
-3317.99 2616.52 833.763
-2380.57 3216.97 1275.28
-3031.39 2979.53 1180.87
-3587.18 3053.44 1289.75
-3171.51 3451.72 1025.9
-4334.79 3239.79 -546.179
-3367.95 3238.22 -930.809
-3597.3 3640.95 -525.333
-3282.24 3856.7 21.4682
-3039.27 4725.76 658.833
-3880.87 4197.27 21.1582
-3158.89 4999.82 -34.2703
-3798.78 4999.82 191.921
-4080.18 4692.16 279.394
-3653.64 4999.82 914.876
-3451.74 4999.82 432.421
-2413.2 -1954.63 1328.06
-1674.5 -1485.67 1087.41
-8139.6 -2006.74 864.303
-7644.6 -1772.36 566.884
-8433.2 -1709.64 569.205
-8408.3 -569.938 1241.09
-8500.8 -1246.53 1253.16
-3453.23 -1496.8 -927.377
-3362.37 -1687.7 -406.968
-1829.34 -1474.75 286.074
-1678.69 -1915.43 65.8064
7386.24 3571.62 -862.539
8015.67 3909.87 -971.523
8202.79 2924.08 -494.945
7861.75 3380.56 -913.468
8891.76 2704.19 -486.509
9213.36 3072.78 -574.128
8839.88 3086.04 -957.549
7690.9 3839.51 -23.6815
8218.1 3872.94 567.108
7660.64 3168.13 -53.2572
8414.83 3360.53 -132.99
8126.24 3913.99 114.789
8661.8 3758.87 -217.914
8930.13 4410.29 867.148
9213.36 4168.96 417.935
8555.54 4683.71 324.087
8903.57 4999.82 -107.733
8645.19 4678.15 -429.003
8844.97 4443.53 267.47
8856.36 4253.73 -275.757
8595.03 4288.84 1596.25
8442.05 4999.82 897.633
8110.73 4660.42 1297.7
7251.66 3665.56 958.095
7563.91 4150.9 815.179
7654.96 3727.4 598.14
7888.76 4091.98 1217.03
-8063.28 588.792 293.426
-8781.11 948.174 456.021
-8781.11 507.237 843.233
-8025.9 822.291 802.734
-8445.84 692.058 1119.48
-7486.24 559.532 781.299
-7251.78 994.353 169.364
-8247.32 831.099 1352.84
-7595.4 827.734 1282.17
-7140.49 805.869 763.438
-7051.02 757.061 1596.25
-7099.08 1178.39 1233.38
-7821.55 1426.25 1211.22
-8376.92 1137.25 829.23
-8781.11 157.176 1267.93
-7661.14 -389.569 867.812
-7910.2 346.075 929.024
-7703.96 49.5206 1230.64
-8118.96 -232.751 1596.25
-8230.05 -31.5479 841.446
-8453.99 280.646 375.268
-7529.14 178.734 458.761
-7918.38 131.231 456.611
-8488.66 -343.456 -326.727
5348.59 3707.63 561.47
6117.2 3464.32 81.2346
5715.32 3429.77 -850.53
5972.37 4111.19 -916.229
6342.61 3188.97 -1241.34
685.711 -2267.17 217.332
670.761 -1178.1 512.192
761.378 -1718.8 706.491
1017.98 -1543.8 396.988
302.101 -2267.17 -103.701
390.047 -1505.86 73.2969
467.646 -1911.57 413.307
61.1542 -1994.58 453.134
526.86 -1165.98 -541.235
1284.49 -131.802 -944.822
835.375 -542.039 -244.24
1102.49 -1142.23 -139.675
1406.14 -571.003 -558.769
1236.77 -842.386 -781.132
1608.46 -2267.17 -542.221
1625.95 -1887.77 -67.2363
2307.69 -1948.07 -533.417
1983.65 -2011.12 -305.052
2169.08 -1695.61 -847.351
963.497 -1946.1 -913.621
523.564 -2267.17 -835.777
992.478 -1736.51 -349.763
625.593 -1574.45 -355.601
7806.64 4445.17 -911.541
8384.73 4193.69 -1241.34
8348.07 4166.21 -827.277
9213.36 4668.72 -910.893
8452.44 4680.6 -795.293
8815.68 4131.34 -847.399
5690.72 4131.34 376.859
4655.05 4325.92 -585.299
6023.26 4708.45 1244.31
5279.75 2749.35 1207.36
4974.48 3071.36 1303.08
5364.25 3540.92 1336.04
5696.64 3899.2 1596.25
5667.59 4159.34 1192.21
5879.1 4096.5 860.05
6214.11 4999.82 693.691
6312.3 4207.09 900.878
6393.18 4292.84 1596.25
5535.91 4524.35 814.068
6261.56 4441.54 520.782
4219.92 4999.82 206.747
4284.41 4645.52 659.863
4926.7 4673.64 259.951
4678.8 4394.35 38.5419
4973.22 4291 890.288
5257.64 4469.2 231.751
5061.31 4645.73 787.474
5206.43 4999.82 1119.07
5042.72 4588.79 1596.25
-7457.25 2403.61 1175.46
-7691.98 2702.43 806.317
5750.41 -192.676 -885.816
5689.01 -1511.96 371.762
5452.77 -1634.33 -139.776
5307.34 -1696.4 256.596
5087.11 -1448.21 48.2859
5218.37 -1442.23 -590.442
5434.21 -1699.35 -552.733
4509.49 -1887.86 399.687
5106.64 -920.963 1321.63
5285.34 -396.636 808.02
5661.09 -411.123 1136.42
4979.82 -533.3 1300.22
4553.1 -861.274 111.503
5293.06 -1145.99 348.231
5985.22 -1249.13 984.813
5520.32 -889.722 1260.88
6133.91 -800.619 988.908
5731.63 -758.492 893.95
5746.06 -1340.59 -842.94
5945.59 -571.453 -863.53
5499.98 -902.65 -884.929
5774.06 -2267.17 -833.684
6369.26 -897.068 -794.453
6401.74 -2267.17 -1016.13
6401.74 -2035.56 -1241.34
6380.98 -1947.8 -623.362
5796.59 -1466.93 -193.86
6009.61 -1977.46 -690.958
1852.13 -1189.02 -834.21
1715.69 4999.82 -290.706
1519.88 4451.81 -170.346
1709.05 4131.73 -1241.34
1528.34 4999.82 -1045.06
1528.34 4783.64 -1241.34
701.08 4999.82 -290.711
828.816 4695.83 -19.2479
527.207 4048.4 -371.916
1157.21 3760.12 -467.87
1448.41 3646.71 197.286
704.994 4235.77 -878.985
1070.05 4680.09 -934.476
2045.54 3629.76 -930.461
1713.12 3450.35 -336.45
1825.91 4169.39 -555.617
2049.48 2873.76 591.12
2412.98 3087.27 -231.293
2381.92 3197.06 327.961
1373.76 3612.48 -930.294
609.407 3421.21 -782.468
1088.93 3189.61 -220.161
839.52 3760.42 741.146
8879.09 3650.29 838.509
-7911.33 4510.24 -123.443
-8781.11 4192.93 -106.781
-8416.85 4371.83 -879.252
-8180.45 4707.71 -481.052
3423.75 -1804.99 1323.53
3887.87 -1967.19 1297.62
3590.17 -2050.11 1379.75
3453.33 -1245.63 1017.76
4662.15 -1621.3 1319.55
-3795.82 -2267.17 186.733
-4120.17 -1965.66 407.561
-6337.77 -1628.68 -664.735
-7440.58 -1985.1 -513.918
-7811.49 -799.871 -459.705
-7625.43 -1414.12 -217.547
1427.01 -848.523 1323.97
1413.98 -1365.36 1596.25
1100.49 -1458.37 1269.62
1254.64 -1547.34 798.288
1514.89 -1938.94 341.797
498.577 -909.647 864.128
1000.82 -702.339 1255.56
368.513 88.1339 812.205
122.039 -100.303 1596.25
274.395 -282.48 1260.09
-259.372 128.263 1596.25
8532.02 3978.37 273.015
8777.88 3612.21 141.429
7883.98 3272.81 960.415
8230.64 3407.29 1596.25
7628.74 2780.61 739.059
8518.86 3221.94 904.118
8463.53 3547.55 372.891
7257.04 2333.91 1596.25
8104.81 2060.78 933.033
7898.98 1684.97 1279.97
8089.28 2104.73 1275.68
7520.03 2223.54 1255.43
9213.36 2480.36 0.227005
8855.19 2265.77 260.576
7913.93 2818.96 422.309
8498.68 2905.12 448.042
8858.32 2497.36 663.956
9213.36 2924.76 763.621
8722.67 3176.77 641.203
8542.22 2862.64 854.439
-8455.16 4664.56 1327.58
-8101.11 4701.71 1276.54
-5303.5 3351.29 959.839
-4847.58 3871.16 1345.34
-4881.55 4330.62 1596.25
-5416.22 3761.84 1283.38
-4293.95 3506.62 302.965
-4417.97 4246.78 -65.7005
-974.934 3821.11 169.503
-822.047 4110.98 -159.138
-789.82 4999.82 177.427
-96.4285 3210.47 -920.417
-485.5 3004.38 -885.438
-313.709 3772.42 -417.211
195.548 3694.51 -527.904
-1608.63 3223.99 -924.728
-839.289 3540.01 -891.474
-1727.08 4082.55 -61.5168
-1254.42 4693.8 -932.772
-1590.95 4999.82 -835.711
-34.2527 4692.86 -921.922
455.979 4687.3 -431.74
324.235 4728.82 -969.808
218.598 3894.84 -946.723
-254.636 4640.46 -304.567
-8781.11 1175.97 -914.437
-8484.49 1224.76 79.3782
-8078.92 1070.72 -530.441
-7965.78 1158.57 -52.6783
-8781.11 1017.64 -164.772
-8462.03 742.079 -275.532
-7695.61 1741.86 -514.267
-7909.99 2128.09 -1241.34
-8458.68 1396.47 -410.856
-8461.46 1811.75 -73.2289
-8405.97 2061.88 -499.539
9213.36 6.36292 1121
9213.36 17.8486 541.472
8917.99 -206.18 141.065
8809.85 -592.329 649.346
8824.98 -172.161 1259.59
7977.34 -712.815 1596.25
7787.51 -493.046 1282.39
8326.58 460.745 1288.27
8341.92 -327.445 1205.07
9213.36 563.717 1241.44
8248.22 -1989.02 1596.25
9213.36 -1681.17 1026.11
-8045.68 4574.48 767.78
-8455.23 4672.92 80.2757
-8297.06 4207.1 -58.0419
-7973.93 4350.15 380.223
-7109.12 4999.82 669.302
-7533.2 4698.7 261.744
-5698.59 4747.02 -1241.34
-5665.87 4999.82 -1013.44
-5575.5 4621.05 -858.667
-6374.78 4264.77 -875.277
-6433.25 4503.11 -464.188
7742.3 -570.413 -37.0429
7520.34 -740.284 -612.276
7170.03 -474.17 -366.862
7962.38 -1094.91 -317.336
7374.12 -1190.21 -395.023
7529 -2267.17 157.041
7135.56 -1989.23 -155.44
6156.51 -1913.31 30.6174
6461.7 -1300.04 -396.845
7915.83 -1390.74 -948.911
7861.38 -985.181 -951.816
6577.43 -1995.53 -315.275
7549.24 -2032.47 -1241.34
7526.53 -2267.17 -1241.34
7108.46 -1936.32 -908.608
7482.9 -1927.75 -423.345
7530.63 -1474.16 -931.333
8425.2 -1329.53 -1241.34
8255.39 -1047.43 -995.28
8052.64 -2267.17 -11.2332
7787.5 -1575.82 -156.354
7721.91 -1965.45 -75.0511
-6770.11 -1071.82 -396.374
-6657.82 -1434.84 -685.63
-6974.48 -1354.84 -956.98
-6561.98 -1606.54 366.153
-7069.37 -1376.07 -102.236
9213.36 1473.29 431.101
8891.23 1688.3 728.33
8892.61 1850.43 1266.36
8883.16 1211.18 1330.02
8845.13 1115.46 582.605
8912.19 901.691 988.438
7714.27 1060.49 437.997
8281.92 1341.98 239.266
8368.6 2283.69 297.788
7911.95 1970.4 527.311
7395.55 2308.66 654.791
8265.27 1407.01 1178.95
8181.03 1069.39 1596.25
8324.03 883.777 1288.27
8548.58 2261.38 972.684
8887.48 173.757 714.228
8899.6 2595.39 1277.45
9213.36 3123.27 1322.78
8965.2 3172.85 1596.25
8541.32 1983.67 1273.83
8082.17 2696.88 1262.08
-8141.11 2602.42 -935.204
8105.51 4662.82 -626.822
7588.18 4663.55 -195.895
6975.91 4653.91 -528.689
-8040.16 -1939.05 1270.85
-8076.94 -75.0153 194.519
-7558.77 -700.578 299.543
-8128.37 -654.604 476.02
-7911.67 -324.375 -132.161
-8003.95 -1266.57 -1.57752
-8102.87 -121.347 -944.382
-8505.35 1677.21 1059.79
-7967.64 2632.51 1303.43
2175.9 4378.53 -381.926
2813.47 4336 -323.787
2200.67 4999.82 -290.7
2503.51 4601.88 30.1085
3412.85 4687.84 -939.666
2232.41 4690.97 -1241.34
2278.05 4999.82 -1014.43
2020.02 3623.49 279.34
2299.68 3946.25 564.2
1877.95 4629.8 -872.676
2210.79 3162.16 -930.461
2544.95 3692.02 -405.367
2654.51 4037.44 -24.1787
3294.17 3456.03 -176.737
3376.13 3361.92 -928.976
2739.29 3619.7 -1241.34
2824.41 3147.5 -873.908
-3781.69 4161.56 -907.306
-3350.32 4616.25 -617.947
-7606.64 -1090.74 -927.141
-1814.23 4692.43 116.488
-2150.2 4225.67 1280.75
-1773.01 4195.39 1272.76
8895.83 2399.54 -1241.34
8048.93 1929.32 -534.266
8484.12 1516.6 -935.207
8186.32 2906.14 -979.584
8417.55 2402.03 -546.37
8879.01 3155.23 -14.4903
-7641.35 -1589.1 -570.2
8558.83 4315.97 1.82405
8316.28 3813.74 -256.317
8474.16 3940.49 -556.534
-4104.09 3838.58 -614.588
-4512.76 4765.65 -1241.34
-4598.72 4057.47 -1241.34
-4482.36 4709.95 36.694
-5327.31 4703.53 -291.915
-4557.37 3016.11 -903.362
-4939.24 3528.95 -923.946
-5655.25 3824.6 -503.929
-5736.02 3732.31 -1241.34
-4244.73 4726.24 -623.957
-4597.34 4334.85 -438.656
-4739.86 4661.42 -227.38
-4223.45 4128.84 408.277
-4513.99 3829.57 442.08
-4739.05 3925.34 737.969
-4555.02 4187.64 932.52
-5007.66 3876.46 -11.1607
-3097.86 3675.32 -930.809
4878.8 -2267.17 1369.96
4902.33 -2267.17 1596.25
4815.49 -1363.23 740.176
5481.26 -1615.63 769.204
5141.9 -1373.72 1300.05
5161.29 -1904.79 632.441
-7810.57 -1940.98 76.4022
-7790.6 -1311.17 295.862
-8419.35 -1574.8 -483.551
1308.11 -2267.17 1241.54
1326.15 -1977.04 679.736
1644.07 -1663.99 678.545
2900.51 -1597.51 798.729
2571.6 -1654.45 591.991
-7596.86 2703.4 -911.983
-7943.35 2271.25 -459.063
9213.36 -533.35 1309.88
8555.64 -1213.81 454.782
8894.99 -1525.37 872.673
8860.28 -1484.41 381.629
7974.8 1507.4 -541.119
8099.66 1309.93 -931.764
8358.03 959.081 -887.616
8855.39 1710.79 161.636
-2486.67 3562.71 796.433
-3358.33 4310.43 1222.22
-2496.02 4216.65 490.633
-2539.24 4325.69 815.016
-2052.42 3862.14 859.801
-2082.45 4197.24 371.695
-4219.16 4711.66 955.047
-3297.56 4706.4 1328.69
4596.95 -2267.17 -1013.79
4127.05 -2267.17 -1014.73
4131.6 -2047.56 -1241.34
4895.93 -1956.51 -834.922
-5948.87 1369.62 1283.28
-5216.08 1557.15 833.03
-5562.73 956.137 1131.4
-4309.04 1966.79 580.253
-4995.07 2435.18 685.549
-4604.35 2346.37 334.282
-4443.51 2102.65 951.368
-5966.99 2185.41 -799.038
-6249.62 1389.52 -868.777
-5835.52 894.733 114.323
-6091.98 542.035 625.716
-6718.13 841.396 280.028
-6460.63 412.713 368.283
-6481.73 321.327 829.782
-6919.98 438.45 914.414
-6290.74 181.392 -434.02
-6853.75 347.672 -253.514
-5863.06 -68.2288 612.953
-6109.28 -864.271 578.023
-5502.42 129.107 863.797
-4192.43 3951.26 1117.7
-7621.43 985.724 -513.908
-7142.96 1553.8 -894.608
-7926.78 2874.92 -6.42757
-7629.23 2048.4 193.974
-6962.58 1653.1 279.884
-7925.49 2357.28 605.319
-8280.31 2290.14 771.221
-8454.85 2206.07 76.1106
-8781.11 2342.08 515.443
-7688.03 1355.28 410.273
-8083.61 1728.95 -117.198
-8781.11 1568.04 549.11
-8410.45 1969.64 490.358
4481.55 4667.25 1005.04
-7600.71 131.911 -307.23
-7828.01 675.095 -344.095
-7947.52 449.15 -691.095
-8042.51 21.4405 -161.5
-8460.21 966.802 -637.812
-7739.92 1017.38 -1241.34
-7314.87 616.998 -354.993
-8124.7 791.835 -967.685
-7083.72 -2267.17 686.356
-6900.75 -1580.1 670.273
-7390.9 -1198.5 1596.25
-5309.75 4166.76 -958.476
2449.38 4666.18 1261.33
-7544.34 4394.18 -613.667
-7734.54 4707.19 -724.688
-7672.66 4685.35 -1241.34
7468.29 2428.67 -818.661
5744.34 2943.44 887.628
6395.12 3092.36 703.161
6466.35 3838.44 1596.25
6067.78 3612.11 746.206
5958.95 3364.42 1596.25
6245.11 3070.14 1258.16
6757.43 2800.79 883.388
6495.91 3318.61 1325.09
7118.85 4454.59 698.155
6733.89 3721.53 849.047
7460.31 4685.83 1074.34
7679.28 4999.82 425.374
8315.49 4496.37 786.063
8022.15 4309.07 475.973
6177.69 4999.82 -278.665
6199.11 4118.1 98.2061
6791.06 4490.56 -107.619
7853.9 4681.41 352.395
8041.16 4390.33 -329.198
8363.5 4684.87 -72.0214
7074.06 3800.17 1315.76
-6810.37 636.005 1596.25
-6573.95 1004.88 1083.22
-5841.74 503.833 1596.25
-6471.84 129.532 1252.25
-6051.38 9.03211 1596.25
-6977.87 -193.246 844.742
-6526.52 -713.773 1073.08
-6043.03 -637.316 1292.51
-6013.44 965.015 -631.956
-6036.99 625.362 -1241.34
-6503.63 539.558 -571.473
-7099.23 791.847 -886.636
-6661.48 738.742 -304.175
-7274.49 470.583 -1006.42
-7277.87 -868.927 -419.472
-6701.94 -674.822 -518.491
-7395.49 -60.3205 80.0435
-6075.03 -439.686 -458.253
-6359.6 103.824 -845.173
-6145.21 -479.987 -1241.34
-6279.09 -885.448 -843.097
-5680.08 -775.065 -595.294
-5715.37 -1317.55 -651.166
-5853 -30.9749 -1241.34
-6400.45 140.5 -23.6153
-5410.95 -274.125 -347.869
-5615.23 -210.847 -1241.34
-5255.45 128.484 -1241.34
-4858.37 341.55 -673.199
-6320.03 1671.31 -415.498
-6145.33 803.675 -224.136
-5728.48 1184.78 -416.507
-4997.61 1030.65 76.2847
-5734.1 276.603 -961.278
-5912.71 571.009 -588.276
-5296 738.855 -1241.34
-5408.79 492.353 -310.708
-5654.38 169.527 -509.924
7018.9 1047.86 -250.036
6569.24 930.02 -811.2
6589.82 563.209 -541.22
6461.74 -104.464 -496.519
5945.11 207.78 214.875
6114.15 670.828 -285.361
5807.07 -1097.24 160.313
5852.97 -557.373 356.632
5219.19 -555.708 256.517
5850.54 -807.818 -238.408
5948.33 -481.99 -541.246
6376.84 -426.388 -1241.34
5645.29 346.327 -941.57
6083.7 -187.972 -298.617
5889.76 671.199 -969.106
5793.36 376.74 -548.458
5608.48 1022.89 -935.063
6159.1 -39.558 -962.505
5349.33 -394.464 -576.974
4920.46 126.121 -467.225
5256.27 268.22 807.433
5227.68 165.576 1260.11
5198.77 962.255 1299.24
4777.65 1246.97 1243.42
5136.62 626.158 1164.97
5768.68 1308.54 1596.25
5177.87 1366.89 1596.25
5477.4 1443.75 1292.54
4080.12 192.899 1203.41
4567.54 630.916 1222.08
4352.92 -120.94 1273.76
4907.04 745.215 737.551
4624.2 56.8197 462.718
4682.26 274.274 831.54
5739.41 1591.81 755.098
5405.16 1145.29 744.126
5294.15 1841.44 122.513
6386.39 622.691 485.671
7171.87 -228.201 955.505
6473.43 -707.31 447.582
6921.28 145.686 215.005
7190.77 1071.15 862.963
6033.08 422.083 632.739
7439.39 438.467 1255.96
5649.2 661.302 621.075
5802.93 787.959 1284.61
6202.64 1306.51 529.788
6596.87 1334.14 779.984
6016.87 1049.09 836.02
6035.7 1614.51 1183.04
6379.49 1220.58 1274.41
6586.48 870.195 1285.2
-6668.75 1474.28 1596.25
-6388.7 2528.32 1284.88
-6285.58 1972.16 1286.98
-7328.57 2459.51 -56.5569
-5554.95 2061.27 1268.25
-6024.24 2171.24 911.899
-5619.29 1792.48 912.784
-6459.52 1922.55 456.699
-7175.97 1904.75 543.359
-6827.77 2202.42 932.838
-6658.05 1753.47 1235.89
-7378.23 1762.72 1596.25
-7535.96 2221.91 -936.19
-7091.33 2178.67 -946.173
-6410.3 1878.87 -1241.34
-6736.44 1496.81 -1241.34
-6711.05 1195.07 -970.587
-6787.12 1688.12 -279.912
-7056.6 921.424 -370.813
-7181.45 1500.97 -315.602
-6434.65 3022.38 -1241.34
-6797.39 2778.18 -1241.34
-6731.71 2470.62 -1241.34
-6736.9 2334.9 -689.825
-6432.71 2872.05 -160.37
-5417.62 2081.55 -911.731
-6023.52 2851.26 -179.272
-6579.92 2472.04 -319.855
-6940.12 2374.93 41.4559
-6466.54 2546.37 316.702
-6059.56 1663.25 230.727
-5774.35 1538.3 -190.89
-6181.74 2228.27 -165.784
-6771.85 1465.38 625.182
-5919.68 1336.32 583.835
-6892.68 3037.87 -530.647
-6909.98 3332.35 -1241.34
-7228.86 2737.75 -1241.34
-6963.08 2707.34 -850.393
-7772.77 3157 -875.533
6292.64 2244.81 -1241.34
6307.31 1937.88 -868.872
6664.46 2182.03 -901.802
5872.67 1679.35 -356.527
5552.12 1512.15 -1241.34
5600.34 2145.2 -932.978
5961.29 1938.03 -1241.34
6171.4 3094.44 -822.036
7132.71 1990.1 -292.155
5907.41 2530.73 561.297
6267.81 2733.08 286.682
6466.4 1929.23 -176.396
6692.73 1822.45 247.605
7506.81 1545.99 381.696
6952.86 1306.11 277.858
6534.15 1359.02 -499.656
6244.99 1206.55 -1241.34
6194.64 1623.25 -1241.34
5333.46 2703.62 -885.745
4854.51 2000.38 -781.261
5522.55 1923.99 -517.958
5205.06 1444.33 -692.548
4900.62 1627.73 -260.894
5770.53 2735.92 -198.174
6335.69 2293.81 -470.773
5985.99 2632.37 -590.121
5997.67 2213.75 -636.687
4865.3 2318.31 -505.709
5506.57 2035.43 1596.25
5601.73 2038.79 866.308
5709.37 2631.11 1270.61
6951.3 1753.07 1297.44
6362.32 2025.68 717.217
7173.13 1806.71 778.96
6580.81 2139.4 1596.25
6270.96 2123.55 1310.56
5839.66 2316.99 -55.6107
6206.22 2399.83 20.8766
5199.95 2657.56 608.061
5117.8 1725.69 809.749
4739.51 1713.69 1183.48
6172.22 1697.42 822.575
6190.61 2315.33 914.37
7359.22 3394.97 579.76
7605.93 3119.58 1238.12
7032.79 2925.59 1310.98
7320.31 2500.44 990.538
7676.38 2666.5 1283.8
7980.21 2552.81 -569.722
7515.27 2747.21 -402.961
7609.45 2563.14 -122.603
7988.82 2182.18 204.341
7969.94 2610.45 75.5041
6703.32 2531.16 -617.618
7047.1 4303.16 334.72
7565.35 4265.84 55.6812
7252.07 3946.64 299.479
6136.15 4359.64 -309.142
6353.8 4271.42 -763.459
6430.98 4633.07 -479.034
6803.26 3961.85 76.6754
6787.09 3358.37 567.54
6672.17 2288.86 490.883
6895.84 3032.54 36.9326
6641.43 3525.05 -424.195
6599.62 3128.67 -690.421
6217.05 3273.41 -428.55
6324.04 2744.73 -315.354
6972.91 2233.84 124.183
7033.33 3149 -862.881
6419.29 3693.02 -946.418
7327.59 3160.98 -568.656
2354.79 20.475 -962.925
2181.97 560.891 -435.018
2179.42 -18.5937 -508.382
2135.79 447.2 -1241.34
1934.81 117.81 -929.113
2711.37 -614.212 -876.829
2660.64 -514.332 531.533
2462.95 -6.7694 476.928
3047.67 439.354 -1003.02
3097.47 52.2271 60.0369
3193.32 -298.988 -302.327
3107.66 84.7524 -435.396
3732.92 -423.82 -265.136
2850.81 1210.14 237.249
2809.39 826.527 -504.672
3094.29 1006.25 -222.342
3166.42 479.115 -596.397
2737.67 427.744 548.69
2918.51 746.341 65.3471
3045.44 837.279 842.458
2502.64 467.504 -630.208
2726.6 935.932 -905.474
3523.4 803.174 -535.039
3837.86 665.469 -1241.34
2533.34 1428.01 -1241.34
2546.99 1404.11 -354.948
3112.77 1469.63 -859.589
2725.18 1714.15 -951.426
3064.94 2090.69 -846.131
3532.06 2224.01 -929.775
3367.15 125.997 911.881
3044.93 472.862 959.351
2281.5 410.128 904.338
960.067 160.121 1263.96
1121.23 -63.3878 1596.25
4090.31 2279.57 199.137
3869.42 1770.56 394.465
3068.42 1718.48 394.205
2996.53 2566.2 575.063
2848.16 1575.67 906.077
3356.25 1919.64 1596.25
3413.7 1420.29 1162.04
3789.19 893.355 922.438
3178.27 -1043.39 557.626
3440.39 -1494.21 508.399
2912.76 -1338.83 122.043
2559.87 -1166.12 526.382
2379.22 -635.683 851.727
2454.5 -1064.68 860.365
2073.21 -813.327 124.032
3414.08 -1410.03 1596.25
2668.21 -1810.22 1196.54
3970.25 -735.51 1261.84
3381.56 -717.667 771.699
3102.89 -384.103 960.84
2911.69 -793.135 1280.84
2601.73 -85.2988 1235.37
3530.8 708.122 766.587
3163.88 1047.27 521.438
3521.06 -440.526 356.324
3557.05 365.787 1596.25
3564.92 222.458 1265.4
3847.92 -118.66 1596.25
1284.58 1398.46 -915.402
1448.89 747.2 -892.466
1702.43 474.632 -513.617
2185.74 741.706 -918.347
1138.23 1500.17 1596.25
1697.4 1724.04 563.436
1404.04 42.5263 231.021
884.378 -31.6432 525.758
1312.49 -383.312 392.33
1810.36 784.791 1297.36
1673.63 99.2837 537.318
1182.19 405.721 621.444
1427.52 1029.06 1297.36
946.192 985.674 1292.49
1225.7 1113.8 876.75
741.397 717.701 684.309
1191.53 591.279 1596.25
6966.92 1169.54 -968.01
6953.77 1725.3 -967.826
7454.61 1346.24 -1241.34
7693.19 1213.64 -944.652
7601.4 1319.1 1250.35
8483.92 1817.01 -489.788
-4834.08 1392.17 1596.25
-5159.62 1845.52 1268.25
-4353.3 3420.61 1189.95
-4322.79 2641.29 1261.11
-4737.12 3246.48 1311.22
-4736.43 2647.08 1329.26
-3823.65 2992.39 869.624
-3717.88 2061.55 22.2294
-3825.8 2443.95 659.908
-4043.43 2188.56 841.227
-3567.41 2610.79 1303.61
-5104.33 691.422 1596.25
-5276.64 670.764 596.725
-4462.78 1250.3 1596.25
-3698 768.555 1596.25
-3704.07 1234.28 1596.25
-4005.32 422.149 1133.6
-4146.76 941.469 771.618
-3964.34 1450.49 379.291
-4496.61 1669.82 904.882
-4653.68 1113.31 888.043
-4132.19 1235.66 1188.12
-3019.53 2119.14 1152.6
-2895.02 1464.19 1289.92
-3342.42 1132.93 904.542
-3156.18 790.034 97.4592
-3743.68 1962.11 1126.73
-4067.07 1530.35 943.943
-3783.19 3122.74 134.228
-4010.05 2518.71 97.4105
-4648.22 2499.03 -496.454
-4366.28 2138.92 -500.34
-3978.48 2518.29 -563.237
-4095.07 2636.74 -902.537
-3876.98 3217.06 -910.194
-3630.78 2777.37 -1241.34
-4658.65 2358.19 -936.761
-5303.15 2427.61 -1241.34
-4313.43 2172.87 -951.188
-3618.96 2668.61 -830.768
-5114.58 1049.28 -480.68
-5189.16 1552.85 -552.172
-5094 1566.36 -1241.34
-4594.2 1236.94 -867.227
-5417.47 1086.05 -897.395
-4735.59 1771.3 -338.764
-5353.04 1852.64 194.197
-4486.37 1485.94 402.838
-3324.95 1500.57 179.571
-4614.84 611.051 -396.182
-4022.1 1041.75 -190.156
-4206.06 1082.22 -907.308
-3591.93 825.161 -927.541
-4003.82 635.208 -1241.34
-4167.65 527.481 -882.81
-3121.89 719.312 -605.588
-4445.99 1656.81 -32.548
-4418.29 1384.98 -382.098
-3794.86 1551.64 -365.858
-4334.08 1723.57 -970.714
-3626.6 1936.63 -1241.34
-3294.91 1064.64 -958.035
-3781.08 1059.3 -649.241
-4144 1663.21 -648.484
3526.15 -5.5655 -589.058
4218.41 -392.115 -565.37
3895.73 -195.653 -1241.34
4239.23 68.5971 -553.637
3695.24 154.124 -913.316
4185.64 -184.754 -939.033
4775.28 -146.555 -925.36
4386.6 -1019.07 -857.039
4494.58 1301.57 -536.489
4795.27 -451.777 858.522
4446.91 -751.105 1222.22
4729.57 55.8246 1324.71
4058.32 840.306 -429.574
3495.73 612.313 64.2025
4265.57 455.843 119.407
3864.03 202.385 -172.041
-4327.5 -525.121 1596.25
-4156.96 -833.966 1285.66
-5825.11 -738.107 828.089
-5620.97 -405.764 678.793
-5383.15 -246.113 974.349
-5567.36 -591.462 1596.25
-4744.79 499.551 1596.25
-4834.87 -202.367 1292.7
-4354.77 -112.035 1596.25
-4982.35 458.889 1157.09
-4646.83 396.009 714.952
-4431.21 101.314 47.3931
-3930.46 483.597 -289.987
-3801.22 -551.686 315.69
-4292.7 -190.896 367.747
-4244.54 -73.3737 973.532
-4850.39 -600.858 -590.837
-4573.87 -3.97608 -929.492
-5099.68 -93.2743 -877.316
-4593.6 -166.3 -325.26
-5331.99 -131.814 117.632
-4797.87 -456.7 -115.575
-4248.68 -1309.55 -429.998
-4161.59 -12.0023 -1241.34
-4436 -444.379 -873.718
-4110.01 -5.11466 -461.429
-3916.4 127.03 -901.865
-3461.95 -449.35 -615.336
-3206.02 -504.665 -321.635
-4043.7 -521.651 -226.797
-3552.04 -1072.56 -122.343
-3250.19 197.205 -511.416
-3758.85 250.277 123.799
-8315.91 2635 928.828
-8387.88 2694.84 252.855
-7730.32 3262.65 108.808
-7169.9 3719.3 207.233
-7294.65 4270.69 183.019
-7225.61 3913.07 -123.728
-7686.45 3795.69 423.859
-8486.46 3320.05 -345.234
-7744.75 4280.37 711.51
-7687.16 4369.35 1270.5
-7754.38 3742.58 -1241.34
-7347.22 3723.24 -942.008
-7633.5 4157.98 -46.5182
-8437.17 2956.38 -180.659
-8781.11 3255.59 -954.29
-8071.97 4196.91 -1241.34
-7844.89 3956.03 -617.359
-7969.85 3816.68 -979.121
-8140.59 4220.19 -487.106
-8398.91 3944.45 -701.957
-7601.65 3643.84 -584.028
-7984.94 2661.07 -476.015
-6307 3593.55 -856.479
-7016.04 3519.84 823.261
-6668.26 3490.32 1006.93
-7026.77 3951.44 1261.31
-6813.23 3459.42 1596.25
-7960.11 3804.99 1073.73
-8143.88 3044.71 593.562
-8781.11 3467.88 171.27
-8244.81 3965.18 531.835
-8412.4 4113.27 1215.79
-8781.11 4042.52 705.98
-8434.79 4271.55 569.707
-8475.45 3077.87 478.052
-8781.11 3292.65 835.382
-8145.53 3637.25 735.61
-8462.04 3118.48 896.142
4251.87 1577.16 -937.604
3769.67 1155.14 -1241.34
3710.46 1514.17 -776.851
3877.17 494.224 -774.237
4417.29 941.641 -755.869
4006.56 1696.67 1176.42
4240.47 1300.12 932.407
3321.23 1445.2 723.417
3699.24 1110.32 -53.4883
3851.62 1240.82 653.83
4242.15 927.362 -26.613
3427.3 2141.84 -229.877
5335.18 1280.29 26.6427
5422.86 574.081 -301.901
4561.8 567.359 -411.047
5363.88 89.246 -942.673
5131.5 548.921 -1241.34
5246.81 773.063 -893.003
4808.36 1069.78 -988.613
4848.59 941.31 -466.265
4569.02 449.771 -857.649
5877.57 1038.36 101.741
5154.3 400.236 128.916
4556.45 1091.05 423.86
3791.2 -235.592 853.516
4044.7 -713.708 468.432
3987.95 47.056 459.115
4515.78 580.268 549.93
3971.64 288.901 763.5
493.047 -709.328 1596.25
828.781 -454.032 945.57
509.544 -808.895 1232.4
204.738 148.083 1243.61
824.563 357.719 907.665
-345.528 1122.85 771.381
-730.105 1033.13 -87.9523
-301.595 562.165 181.382
-563.101 112.383 190.83
-551.918 775.692 499.768
-282.227 -113.265 620.512
841.561 1431.06 577.494
1020.99 975.947 -915.402
61.8085 335.075 -874.093
455.185 -179.715 -445.335
483.469 -604.72 -941.567
849.818 -50.1539 -929.146
-5169.44 2288.82 1268.25
-5267.16 3151.49 1288.74
-6733.89 3977.54 -317.022
-7050.71 4230.74 -499.439
-6876.7 3563.03 -437.77
-6999.83 4019.47 -864.409
-7364.33 2756.64 476.45
-7543.38 3277.05 508.123
-6781.29 2625.32 754.176
-7103.89 3252.72 1269.07
-5929.7 2874.42 793.559
-5438.16 2884.48 890.103
-5407.95 2694.52 1335.7
-5821.37 2473 1340.42
-6265.4 2910.65 1231.96
-6489.34 3255.75 385.792
-7244.99 3139 42.4776
-7327.05 2851.88 1596.25
-7108.35 2821.31 1209.9
-6948.34 2968.19 447.742
-6411.76 3339.97 745.047
-5896.7 3621.92 843.617
-6031.34 3865.83 437.106
-4504.14 2776.72 -119.286
-4586.11 3772.13 -112.661
-3779.91 3579 -134.753
-4047.88 3811.07 25.9289
-5492.43 3467.47 -1241.34
-5906.75 2736.82 -1241.34
-6205.03 2678.17 -746.922
-5805.54 2788.35 -544.382
-6732.38 4289.95 -1241.34
-6647.12 4473.97 -910.722
-7102.16 4713.96 -931.362
-5684.54 3944.22 -949.674
-6019.23 4137.92 -903.538
-5076.89 4245.3 -50.6116
-5276.32 4441.44 -596.958
-5228.3 2800.22 -194.932
-5183.83 2827.25 -883.44
-5482.08 2495.08 -892.453
-5772.08 2296.03 -219.037
-5793.69 2222.14 239.915
-5115.54 2232.68 -277.805
-5046.51 3262.41 -279.095
-5219.44 3702 -545.217
-5769.3 4087.22 492.836
-5516.61 3955.28 -43.7994
-5241.14 3900.41 339.494
-5650.81 2806.68 231.984
-5871.86 4375.81 -100.042
-6268.65 3825.86 62.1871
-6279.19 3490.55 -336.602
-6076.25 4098.48 -537.079
-5540.27 4727.79 261.88
-6120.29 4676.94 371.703
6728.24 429.707 896.514
6962.9 265.265 1596.25
6679.81 148.288 1261.37
7339.04 281.219 581.803
7957.08 432.638 845.753
8188.03 -55.6966 909.773
8023.61 -163.632 1596.25
7594.95 -1086.12 1596.25
7101.17 -1388.41 946.446
6793.16 -1058.07 -592.468
7154.43 -517.422 276.792
7551.08 -913.449 752.126
6185.44 -1490.54 396.161
6518.41 -1556.61 55.4541
6699.06 -1031.27 558.961
7340.41 -1407.74 61.8577
6867.85 -1584.31 604.549
6509.85 -1029.75 1285.95
6866.89 -1564.08 1290.22
7941.02 -1449.23 1273.89
7546.08 -1623.09 1299.9
6908.34 -10.6322 -858.548
-2407.44 2757.66 1031.28
-1747 3565.61 1257.98
-2585.17 1943.55 888.615
-3133.05 1292.76 517.611
-2698.83 903.104 450.529
-2671.76 1487.77 800.364
-2067.64 1005.53 878.116
-2404.25 2252.96 696.148
-1956.59 1847.11 732.322
-2231.92 1808.61 70.202
-1327.49 1224.27 -978.504
-1309.36 1152.19 -458.567
-685.694 1489.87 -1241.34
-578.621 1199.55 -852.427
-957.703 1653.35 -177.404
-884.36 3023.24 -460.474
-1771.63 3084.98 -620.443
-1525.57 3000.06 158.736
9.05528 3350.29 -208.422
-203.633 2693.88 581.107
-208.85 3007.2 128.468
-1665.26 2677.86 -501.032
-1117.68 2498.94 -763.408
-2231.27 2459.15 81.8438
-2251.35 2944.68 -263.557
-1858.68 1126.06 -923.819
-1040.16 1781.55 -882.993
-1397.06 2236.23 -167.372
-2036.77 2765.62 580.02
-1378.01 2452.7 659.081
-1735.23 2233.14 997.918
-1487.74 2107.49 1596.25
-696.132 2357.47 251.141
-819.248 2327.9 -342.482
-80.1377 2244.73 -695.232
-238.851 1513.4 -457.716
-455.395 1829.96 -806.318
-530.895 1942.19 384.753
-1147.9 1355.2 449.351
-1334.08 1902.61 790.611
-768.111 2132.91 682.363
-907.278 1401.76 1274.94
-748.483 1501.71 692.613
-327.941 1448.77 1596.25
-359.974 1880.03 1596.25
-1416.42 224.718 33.089
-1738.37 1686.17 1304.69
-2422.42 1960.22 1277.28
-2260.68 1280.3 1596.25
-2041.37 590.436 1302.51
-1447.74 1216.87 1596.25
-1486 833.105 1596.25
-1081.58 1024.42 904.172
-1724.76 1251.68 1304.69
-2684.83 2574.43 1305.69
7019.29 -563.951 -1241.34
7290.01 -560.958 -871.558
7877.12 -538.458 -567.26
8722.64 1089.58 -5.13362
8483.81 1417.59 -467.44
9213.36 631.331 432.195
8908.71 797.949 -906.335
9213.36 261.338 4.1564
8603.14 -320.398 -934.109
8469.28 21.9191 -893.799
8144.17 316.501 -649.642
8041.8 -186.009 291.374
8506.88 -301.009 667.418
8565.01 62.7689 651.506
8603.32 121.32 208.505
8039.1 462.772 143.763
7421.72 -22.5917 18.2766
7665.96 702.317 -972.696
7271.39 342.824 -1241.34
7182.7 654.369 -947.015
7621.7 927.551 -191.157
8437.51 932.297 -528.213
8485.07 678.469 692.875
167.474 1627.58 1207.48
-267.214 1514.94 1048.44
-478.089 1931.58 967.295
-41.8904 2045.22 713.27
167.743 1987.84 1307.45
616.907 1869.51 1272
1114.89 1918.1 1596.25
394.576 2102.04 553.863
-46.0288 3005.32 917.994
975.374 2559.78 1291.51
503.432 2086.7 -1241.34
371.257 2321.56 136.394
-192.591 2302.17 -256.078
514.412 2673.37 -364.929
-32.0867 2728.08 -171.568
104.853 2697.69 -555.362
427.265 1355.43 918.528
625.281 725.527 1284.64
281.885 1288.68 1321.88
-94.8433 1810.43 -78.3222
-117.906 1684.48 437.395
70.2824 1188.38 650.937
2020.93 2369.82 45.453
1447.65 2592.1 1596.25
1079.29 2854.79 736.935
1613.29 2326.53 1265.41
1392.4 2108.08 801.843
1070.58 2362.59 941.762
699.163 2209.74 900.701
570.919 2499.72 657.097
957.944 2559.14 364.808
821.516 2707.25 45.5962
-6536.65 4380.73 189.842
-7660.56 3179.14 965.576
-6797.09 4662.64 -302.983
-5888.79 3652.38 1278.02
-6819.5 3919.58 481.2
-5326.26 4063.49 887.994
-4951.3 3339.89 681.761
-4600.13 3120.91 156.522
-4511.66 2916.43 747.751
-5050.2 3413.55 256.59
-5735.76 4262.54 1276.53
-6043.69 4633.34 804.384
-3853.92 -1293.07 -654.06
-3666.61 -487.613 -968.696
-2138.82 -1941.81 466.449
-2447.96 -796.209 261.759
-2680.93 -1486.28 421.668
-2300.61 -1297.77 684.121
-2364.63 -1938.55 861.923
-1793.23 -1934.01 765.382
-3140.21 -1622.51 483.495
-3208.4 -1956.38 185.611
-3876.35 -1335.07 1284.59
-3446.42 -1178.23 1596.25
-3454.48 -740.885 1241.71
-4449.51 -802.271 848.321
-2732.8 -1691.79 -472.563
-2307.39 -2015.11 -304.985
-2113.69 -1409.82 -159.796
-3239.19 -1506.64 69.72
-3677.46 -1405.5 -314.466
-3640.73 -1912.27 95.6876
-751.851 -273.759 1343.65
-125.698 -503.401 1327.37
-2622.48 -91.5662 1296.02
-2251.27 136.505 1272.48
-2258.23 575.123 -613.708
-2721.24 677.402 -405.503
-2642.56 223.316 -449.983
-2531.1 550.221 1596.25
-2777.36 284.295 697.793
-2868.16 737.659 902.383
-1784.13 177.671 919.651
-1213.78 85.294 1288.48
-1593.74 896.769 772.222
-1466.29 801.175 144.58
-1304.07 673.023 1006.91
-1026.56 937.725 295.647
-664.404 372.466 927.634
-2130.87 357.743 -948.52
-2281.9 805.919 -946.671
-1981.55 -8.82706 -490.051
-2023.32 440.845 110.295
-2168.42 -75.4708 -948.52
-1400.27 -707.845 -270.852
-1790.52 -403.384 -388.504
-1687.35 -595.667 37.0636
-1674.42 -61.1673 -1241.34
-1159.02 -70.3232 -1241.34
-1688.62 279.675 -870.565
-1445.48 -963.457 365.589
-1286.91 -186.74 626.83
-1278.43 -247.531 194.154
-669.93 79.4551 589.189
-1325.72 247.76 563.228
-695.561 -265.225 314.792
-767.356 -606.139 544.639
-512.185 -414.909 822.417
-2526.85 -351.776 -260.521
-2319.45 -597.671 -491.605
-2837.77 -778.029 -326.48
-2477.2 -415.252 -895.14
-3030.45 -1191.19 45.7456
-2928.04 -767.378 293.855
-2500.25 -128.306 882.605
-2640.04 -512.713 660.693
-1608.27 3.04729 1319.73
-798.645 -1974.09 642.382
-2154.2 -165.845 579.127
-2491.99 -814.947 1014.16
-3303.64 -848.836 526.951
-3287.9 -651.949 67.925
-3471.88 -172.002 581.508
-3196.05 -429.302 904.85
-2862.12 -500.162 1596.25
-1076.58 -1982.31 839.02
-1391.52 -1749.62 610.067
-2075.83 -1147.16 361.188
